# .PCD v0.7 - Point Cloud Data file format
VERSION 0.7
FIELDS x y z rgb
SIZE 4 4 4 4
TYPE F F F U
COUNT 1 1 1 1
WIDTH 1119
HEIGHT 1
VIEWPOINT 0 0 0 1 0 0 0
POINTS 1119
DATA ascii
-0.14166056 0.010896967 1.1336001 4280101605
-0.14017373 0.010935538 1.1358001 4280101605
-0.13867289 0.010974113 1.138 4280101605
-0.1370379 0.011003044 1.141 4280101605
-0.13503735 0.011003044 1.1412002 4280101605
-0.13303679 0.011003044 1.1444 4280101605
-0.13149561 0.011041615 1.1464 4280101605
-0.12994041 0.011080191 1.149 4280101605
-0.12837116 0.011118762 1.153 4280101605
-0.12678792 0.011157336 1.1566001 4280101605
-0.12475929 0.011157336 1.1569999 4280101605
-0.12315501 0.011195909 1.161 4280101605
-0.12111938 0.011195909 1.161 4280101605
-0.11949404 0.011234483 1.168 4280101605
-0.11825795 0.01131163 1.1716 4280101605
-0.11659755 0.011350203 1.1758001 4280101605
-0.1149231 0.011388776 1.1813999 4280101605
-0.11323464 0.011427349 1.1846 4280101605
-0.11153216 0.011465923 1.188 4280101605
-0.10944745 0.011465923 1.189 4280101605
-0.10772391 0.011504496 1.1891998 4280101605
-0.10563219 0.011504496 1.193 4280101605
-0.10354046 0.011504496 1.193 4280101605
-0.10144873 0.011504496 1.1944 4280101605
-0.099690147 0.011543069 1.1969999 4280101605
-0.097999059 0.011591286 1.202 4280101605
-0.096210651 0.011629859 1.206 4280101605
-0.094408229 0.011668433 1.2100002 4280101605
-0.09259177 0.011707006 1.214 4280101605
-0.021594929 0.01131163 1.1719998 4284583358
-0.019538268 0.01131163 1.1728001 4284583358
-0.017481608 0.01131163 1.1737998 4284583358
-0.015372349 0.011273056 1.1716 4284583358
-0.013322704 0.011273056 1.169 4284583358
-0.011273056 0.011273056 1.1686002 4284583358
-0.0091918493 0.011234483 1.1667998 4284583358
-0.0071492163 0.011234483 1.1655997 4284583358
-0.0050890502 0.011195909 1.1625999 4284583358
-0.00305343 0.011195909 1.1618001 4284583358
-0.0010143033 0.011157336 1.1574 4284583358
0.0010143033 0.011157336 1.1564001 4284583358
0.0030429095 0.011157336 1.1564001 4284583358
0.0050715161 0.011157336 1.1568 4284583358
0.007100123 0.011157336 1.1568 4284583358
0.0091287289 0.011157336 1.1545999 4284583358
0.011157336 0.011157336 1.1545999 4284583358
0.013185943 0.011157336 1.1557999 4284583358
0.015214549 0.011157336 1.1566001 4284583358
0.017243154 0.011157336 1.1574 4284583358
0.019271763 0.011157336 1.1587999 4284583358
0.021300368 0.011157336 1.1587999 4284583358
0.023409629 0.011195909 1.161 4284583358
0.025357582 0.011157336 1.1603999 4284583358
0.027386187 0.011157336 1.1607997 4284583358
0.029516488 0.011195909 1.1621999 4284583358
0.03155211 0.011195909 1.1621999 4284583358
0.03370345 0.011234483 1.1653998 4284583358
0.035868816 0.011273056 1.1676 4284583358
0.037918463 0.011273056 1.1676 4284583358
0.040104866 0.01131163 1.1714 4284583358
0.042161528 0.01131163 1.1735998 4284583358
0.18967471 0.011157336 1.15575 4285916889
0.1917033 0.011157336 1.1566 4285916889
0.19373192 0.011157336 1.1568 4285916889
0.19576053 0.011157336 1.1569999 4285916889
0.19778913 0.011157336 1.1569999 4285916889
0.19981773 0.011157336 1.1569999 4285916889
0.20184635 0.011157336 1.1569999 4285916889
0.20387496 0.011157336 1.1569999 4285916889
0.20590356 0.011157336 1.1569999 4285916889
0.20793216 0.011157336 1.1569999 4285916889
0.20996077 0.011157336 1.1587999 4285916889
0.21198937 0.011157336 1.1572 4285916889
0.21401797 0.011157336 1.1566 4285916889
0.2160466 0.011157336 1.1564001 4285916889
0.2180752 0.011157336 1.1564001 4285916889
-0.24805896 0.01254773 1.1025999 4280101605
-0.24612851 0.01254773 1.1 4280101605
-0.2441981 0.01254773 1.0997999 4280101605
-0.24138755 0.012502142 1.0979999 4280101605
-0.23946413 0.012502142 1.0979999 4280101605
-0.23754072 0.012502142 1.097 4280101605
-0.23561732 0.012502142 1.097 4280101605
-0.23369391 0.012502142 1.097 4280101605
-0.2317705 0.012502142 1.097 4280101605
-0.2298471 0.012502142 1.097 4280101605
-0.22792369 0.012502142 1.0972 4280101605
-0.22600028 0.012502142 1.097 4280101605
-0.22407687 0.012502142 1.097 4280101605
-0.22215346 0.012502142 1.097 4280101605
-0.22023006 0.012502142 1.097 4280101605
-0.21830665 0.012502142 1.097 4280101605
-0.21638323 0.012502142 1.097 4280101605
-0.21445984 0.012502142 1.097 4280101605
-0.21253642 0.012502142 1.097 4280101605
-0.21061301 0.012502142 1.097 4280101605
-0.20868962 0.012502142 1.09685 4280101605
-0.2067662 0.012502142 1.0957999 4280101605
-0.20484279 0.012502142 1.0971998 4280101605
-0.20291939 0.012502142 1.0953499 4280101605
-0.20099598 0.012502142 1.0953499 4280101605
-0.19907257 0.012502142 1.097 4280101605
-0.19714917 0.012502142 1.097 4280101605
-0.19522576 0.012502142 1.097 4280101605
-0.19277373 0.012467952 1.0961001 4280101605
-0.19085558 0.012467952 1.09565 4280101605
-0.18893743 0.012467952 1.0958002 4280101605
-0.18753214 0.012502142 1.0972 4280101605
-0.18628553 0.01254773 1.101 4280101605
-0.1843551 0.01254773 1.1014 4280101605
-0.18242468 0.01254773 1.1014 4280101605
-0.18115002 0.012593316 1.1048 4280101605
-0.17856383 0.01254773 1.1044 4280101605
-0.17663342 0.01254773 1.103 4280101605
-0.17470299 0.01254773 1.101 4280101605
-0.17277257 0.01254773 1.101 4280101605
-0.17084216 0.01254773 1.101 4280101605
-0.16891173 0.01254773 1.1011999 4280101605
-0.16698131 0.01254773 1.101 4280101605
-0.16505089 0.01254773 1.101 4280101605
-0.16371311 0.012593316 1.1054499 4280101605
-0.16221489 0.012627507 1.108 4280101605
-0.1602722 0.012627507 1.108 4280101605
-0.15890108 0.012673092 1.112 4280101605
-0.15695138 0.012673092 1.1130502 4280101605
-0.15541984 0.012707283 1.1173999 4280101605
-0.15456598 0.012798456 1.1223999 4280101605
-0.15259698 0.012798456 1.1236001 4280101605
-0.15103038 0.012832646 1.126 4280101605
-0.14905612 0.012832646 1.126 4280101605
-0.14760436 0.012878233 1.13 4280101605
-0.14562309 0.012878233 1.1303998 4280101605
-0.14364183 0.012878233 1.1329997 4280101605
-0.14216201 0.012923819 1.1348002 4280101605
-0.14066818 0.012969406 1.138 4280101605
-0.13903844 0.013003596 1.141 4280101605
-0.1370379 0.013003596 1.141 4280101605
-0.13551074 0.013049183 1.1449999 4280101605
-0.13350318 0.013049183 1.1449999 4280101605
-0.131955 0.01309477 1.149 4280101605
-0.13039276 0.013140356 1.153 4280101605
-0.12881652 0.013185943 1.1561998 4280101605
-0.12678792 0.013185943 1.1569999 4280101605
-0.12519063 0.01323153 1.1607997 4280101605
-0.12315501 0.01323153 1.1644002 4280101605
-0.12153667 0.013277115 1.1656001 4280101605
-0.11990433 0.013322704 1.1708001 4280101605
-0.11866122 0.013413876 1.1748002 4280101605
-0.11699379 0.013459463 1.1788 4280101605
-0.1149231 0.013459463 1.1831996 4280101605
-0.11361687 0.013550635 1.1853999 4280101605
-0.11153216 0.013550635 1.189 4280101605
-0.10981564 0.013596223 1.1891998 4280101605
-0.10772391 0.013596223 1.1912 4280101605
-0.10563219 0.013596223 1.193 4280101605
-0.10354046 0.013596223 1.1934001 4280101605
-0.10144873 0.013596223 1.1956 4280101605
-0.099690147 0.01364181 1.1977001 4280101605
-0.098325171 0.013744379 1.2084 4280101605
-0.096529759 0.013789967 1.2128 4280101605
-0.094720319 0.013835552 1.214 4280101605
-0.02166857 0.013413876 1.175372 4284583358
-0.019604897 0.013413876 1.1759999 4284583358
-0.017481608 0.013368289 1.1752001 4284583358
-0.015424949 0.013368289 1.1738001 4284583358
-0.013322704 0.013322704 1.1696 4284583358
-0.011273056 0.013322704 1.169 4284583358
-0.0091918493 0.013277115 1.1682 4284583358
-0.0071492163 0.013277115 1.1661999 4284583358
-0.0051065828 0.013277115 1.1639998 4284583358
-0.00305343 0.01323153 1.1628001 4284583358
-0.00101781 0.01323153 1.1603999 4284583358
0.0010143033 0.013185943 1.1569999 4284583358
0.0030429095 0.013185943 1.1569999 4284583358
0.0050890502 0.01323153 1.1574 4284583358
0.0071246694 0.01323153 1.1588001 4284583358
0.0091287289 0.013185943 1.1572 4284583358
0.011157336 0.013185943 1.1572 4284583358
0.013185943 0.013185943 1.1574 4284583358
0.015214549 0.013185943 1.1587999 4284583358
0.017302768 0.01323153 1.1598001 4284583358
0.019271763 0.013185943 1.1603999 4284583358
0.021300368 0.013185943 1.1603999 4284583358
0.023409629 0.01323153 1.161 4284583358
0.025357582 0.013185943 1.1605998 4284583358
0.027386187 0.013185943 1.1610001 4284583358
0.029516488 0.01323153 1.1623998 4284583358
0.03155211 0.01323153 1.1623998 4284583358
0.03370345 0.013277115 1.1655999 4284583358
0.035868816 0.013322704 1.1672002 4284583358
0.037918463 0.013322704 1.1676002 4284583358
0.040104866 0.013368289 1.1706002 4284583358
0.042161528 0.013368289 1.1737444 4284583358
0.17284621 0.013140356 1.153 4285916889
0.17426117 0.01309477 1.1506002 4285916889
0.17627576 0.01309477 1.149 4285916889
0.17829032 0.01309477 1.149 4285916889
0.1809326 0.013140356 1.153 4285916889
0.18295418 0.013140356 1.1541198 4285916889
0.18561749 0.013185943 1.156 4285916889
0.18634865 0.01309477 1.1524 4285916889
0.18836322 0.01309477 1.1524 4285916889
0.19104056 0.013140356 1.1552 4285916889
0.19373192 0.013185943 1.1558001 4285916889
0.19576053 0.013185943 1.1569999 4285916889
0.19778913 0.013185943 1.1569999 4285916889
0.19981773 0.013185943 1.1569999 4285916889
0.20184635 0.013185943 1.1569999 4285916889
0.20387496 0.013185943 1.1569999 4285916889
0.20590356 0.013185943 1.1569999 4285916889
0.20793216 0.013185943 1.1569999 4285916889
0.20996077 0.013185943 1.1569999 4285916889
0.21198937 0.013185943 1.1569999 4285916889
0.21327808 0.013140356 1.155 4285916889
0.21529968 0.013140356 1.153 4285916889
0.21656734 0.01309477 1.1492001 4285916889
0.21782097 0.013049183 1.1453999 4285916889
0.21982853 0.013049183 1.1453999 4285916889
-0.25157878 0.0145702 1.1064501 4280101605
-0.24805896 0.014478149 1.1027999 4280101605
-0.24612851 0.014478149 1.1 4280101605
-0.2441981 0.014478149 1.0997999 4280101605
-0.24138755 0.01442555 1.0979999 4280101605
-0.23946413 0.01442555 1.0976001 4280101605
-0.23754072 0.01442555 1.097 4280101605
-0.23561732 0.01442555 1.097 4280101605
-0.23369391 0.01442555 1.09685 4280101605
-0.2317705 0.01442555 1.0955 4280101605
-0.2298471 0.01442555 1.0955 4280101605
-0.22792369 0.01442555 1.0955 4280101605
-0.22538222 0.014386099 1.094 4280101605
-0.22346407 0.014386099 1.094 4280101605
-0.22215346 0.01442555 1.0944502 4280101605
-0.22023006 0.01442555 1.0944502 4280101605
-0.21830665 0.01442555 1.0947499 4280101605
-0.21638323 0.01442555 1.0947499 4280101605
-0.21387334 0.014386099 1.094 4280101605
-0.2119552 0.014386099 1.094 4280101605
-0.21003705 0.014386099 1.094 4280101605
-0.2081189 0.014386099 1.094 4280101605
-0.20620075 0.014386099 1.094 4280101605
-0.20484279 0.01442555 1.0953499 4280101605
-0.20291939 0.01442555 1.0953499 4280101605
-0.20099598 0.01442555 1.0952001 4280101605
-0.19907257 0.01442555 1.09685 4280101605
-0.19661002 0.014386099 1.0955 4280101605
-0.19469188 0.014386099 1.094 4280101605
-0.19277373 0.014386099 1.0933999 4280101605
-0.19015776 0.0143335 1.0924 4280101605
-0.18824664 0.0143335 1.0924 4280101605
-0.18701929 0.014386099 1.094 4280101605
-0.18560873 0.01442555 1.097 4280101605
-0.18368533 0.01442555 1.097 4280101605
-0.18176194 0.01442555 1.097 4280101605
-0.18049426 0.014478149 1.101 4280101605
-0.17856383 0.014478149 1.1014 4280101605
-0.17663342 0.014478149 1.1011999 4280101605
-0.17470299 0.014478149 1.101 4280101605
-0.17277257 0.014478149 1.101 4280101605
-0.17084216 0.014478149 1.101 4280101605
-0.16891173 0.014478149 1.101 4280101605
-0.16698131 0.014478149 1.1018 4280101605
-0.16505089 0.014478149 1.1018 4280101605
-0.1641576 0.0145702 1.1077 4280101605
-0.16221489 0.0145702 1.108 4280101605
-0.1602722 0.0145702 1.1099998 4280101605
-0.15890108 0.0146228 1.112 4280101605
-0.15695138 0.0146228 1.1130502 4280101605
-0.1559774 0.014714849 1.119 4280101605
-0.15456598 0.01476745 1.123 4280101605
-0.15300465 0.0148069 1.126 4280101605
-0.15103038 0.0148069 1.126 4280101605
-0.14905612 0.0148069 1.126 4280101605
-0.14760436 0.0148595 1.13 4280101605
-0.14562309 0.0148595 1.1332 4280101605
-0.14415029 0.014912098 1.1339999 4280101605
-0.14303957 0.015004149 1.1380501 4280101605
-0.14103901 0.015004149 1.1400999 4280101605
-0.13903844 0.015004149 1.141 4280101605
-0.1375183 0.015056749 1.1424001 4280101605
-0.13551074 0.015056749 1.1449999 4280101605
-0.13396956 0.01510935 1.1484001 4280101605
-0.13241436 0.015161949 1.153 4280101605
-0.13084511 0.015214549 1.1566001 4280101605
-0.12881652 0.015214549 1.1569999 4280101605
-0.12722625 0.01526715 1.1607997 4280101605
-0.12519063 0.01526715 1.1618 4280101605
-0.12357931 0.015319748 1.1671999 4280101605
-0.12153667 0.015319748 1.1682 4280101605
-0.11990433 0.015372349 1.1719998 4280101605
-0.11906448 0.015530149 1.1788 4280101605
-0.11739004 0.015582749 1.1819999 4280101605
-0.11531234 0.015582749 1.1853999 4280101605
-0.11361687 0.015635351 1.189 4280101605
-0.11190736 0.015687948 1.193 4280101605
-0.11018385 0.015740549 1.194 4280101605
-0.1080851 0.015740549 1.1969999 4280101605
-0.10598637 0.015740549 1.1977499 4280101605
-0.10388763 0.015740549 1.1997499 4280101605
-0.10221407 0.015806301 1.2024001 4280101605
-0.10077284 0.015911501 1.2093999 4280101605
-0.098651305 0.015911501 1.2130001 4280101605
-0.096848868 0.015964098 1.214 4280101605
-0.095110439 0.01602985 1.2152499 4280101605
-0.019604897 0.01547755 1.1791999 4284583358
-0.017541224 0.01547755 1.1762002 4284583358
-0.015424949 0.015424949 1.1742002 4284583358
-0.013322704 0.015372349 1.1704001 4284583358
-0.011273056 0.015372349 1.169 4284583358
-0.0092234099 0.015372349 1.1688001 4284583358
-0.0071737636 0.015372349 1.1682 4284583358
-0.0051065828 0.015319748 1.1649998 4284583358
-0.0030639498 0.015319748 1.1647999 4284583358
-0.00101781 0.01526715 1.1630001 4284583358
0.00101781 0.01526715 1.16 4284583358
0.00305343 0.01526715 1.1589998 4284583358
0.0050890502 0.01526715 1.1593999 4284583358
0.0071246694 0.01526715 1.1603999 4284583358
0.0091602895 0.01526715 1.1595999 4284583358
0.011195909 0.01526715 1.1593999 4284583358
0.01323153 0.01526715 1.1595999 4284583358
0.01526715 0.01526715 1.1598001 4284583358
0.017302768 0.01526715 1.1607997 4284583358
0.01933839 0.01526715 1.1611998 4284583358
0.02137401 0.01526715 1.1627998 4284583358
0.023409629 0.01526715 1.1627998 4284583358
0.025445249 0.01526715 1.1625999 4284583358
0.027480869 0.01526715 1.1634001 4284583358
0.029618181 0.015319748 1.1646 4284583358
0.031660814 0.015319748 1.1649998 4284583358
0.033819169 0.015372349 1.1683999 4284583358
0.035868816 0.015372349 1.1684 4284583358
0.037918463 0.015372349 1.1686001 4284583358
0.040104866 0.015424949 1.1712 4284583358
0.043491431 0.015911501 1.198608 4284583358
0.1676318 0.015056749 1.1479375 4285916889
0.17023201 0.01510935 1.1488001 4285916889
0.17224659 0.01510935 1.1512001 4285916889
0.17426117 0.01510935 1.1508001 4285916889
0.17627576 0.01510935 1.1492001 4285916889
0.17829032 0.01510935 1.1492001 4285916889
0.1809326 0.015161949 1.153 4285916889
0.18295418 0.015161949 1.153 4285916889
0.18497577 0.015161949 1.153 4285916889
0.18699737 0.015161949 1.153 4285916889
0.18901896 0.015161949 1.153 4285916889
0.19104056 0.015161949 1.153 4285916889
0.19306214 0.015161949 1.153 4285916889
0.19508375 0.015161949 1.1545999 4285916889
0.19778913 0.015214549 1.1561998 4285916889
0.19981773 0.015214549 1.1568 4285916889
0.20184635 0.015214549 1.1568 4285916889
0.20387496 0.015214549 1.1568 4285916889
0.20590356 0.015214549 1.1569999 4285916889
0.20793216 0.015214549 1.1569999 4285916889
0.20996077 0.015214549 1.1569999 4285916889
0.21198937 0.015214549 1.1558001 4285916889
0.21327808 0.015161949 1.1528 4285916889
0.21529968 0.015161949 1.1528 4285916889
0.21656734 0.01510935 1.1487999 4285916889
0.21782097 0.015056749 1.1453999 4285916889
0.21982853 0.015056749 1.1452 4285916889
0.2218361 0.015056749 1.1453999 4285916889
-0.25157878 0.016512893 1.1077 4280101605
-0.24896018 0.016468182 1.1045501 4280101605
-0.24612851 0.016408568 1.1015999 4280101605
-0.2441981 0.016408568 1.1004 4280101605
-0.24138755 0.016348956 1.0982001 4280101605
-0.23946413 0.016348956 1.097 4280101605
-0.23754072 0.016348956 1.097 4280101605
-0.23561732 0.016348956 1.097 4280101605
-0.23305482 0.016304245 1.094 4280101605
-0.23113665 0.016304245 1.094 4280101605
-0.22921851 0.016304245 1.094 4280101605
-0.22730036 0.016304245 1.094 4280101605
-0.22538222 0.016304245 1.094 4280101605
-0.22346407 0.016304245 1.094 4280101605
-0.22154592 0.016304245 1.094 4280101605
-0.21962778 0.016304245 1.094 4280101605
-0.21770963 0.016304245 1.094 4280101605
-0.21579148 0.016304245 1.094 4280101605
-0.21387334 0.016304245 1.094 4280101605
-0.2119552 0.016304245 1.094 4280101605
-0.21003705 0.016304245 1.094 4280101605
-0.2081189 0.016304245 1.094 4280101605
-0.20620075 0.016304245 1.094 4280101605
-0.20484279 0.016348956 1.0953499 4280101605
-0.20291939 0.016348956 1.0953499 4280101605
-0.20044631 0.016304245 1.094 4280101605
-0.19852817 0.016304245 1.094 4280101605
-0.19661002 0.016304245 1.094 4280101605
-0.19469188 0.016304245 1.094 4280101605
-0.1920689 0.016244633 1.09 4280101605
-0.19015776 0.016244633 1.09 4280101605
-0.18824664 0.016244633 1.09 4280101605
-0.18633549 0.016244633 1.0914 4280101605
-0.18510114 0.016304245 1.0957999 4280101605
-0.183183 0.016304245 1.0967 4280101605
-0.18176194 0.016348956 1.097 4280101605
-0.17983852 0.016348956 1.1006 4280101605
-0.17856383 0.016408568 1.101 4280101605
-0.17663342 0.016408568 1.101 4280101605
-0.17470299 0.016408568 1.101 4280101605
-0.17277257 0.016408568 1.101 4280101605
-0.17084216 0.016408568 1.101 4280101605
-0.16891173 0.016408568 1.101 4280101605
-0.16698131 0.016408568 1.1018 4280101605
-0.16505089 0.016408568 1.1018 4280101605
-0.1641576 0.016512893 1.1077 4280101605
-0.16221489 0.016512893 1.108 4280101605
-0.1602722 0.016512893 1.1102 4280101605
-0.15890108 0.016572505 1.11215 4280101605
-0.15695138 0.016572505 1.11365 4280101605
-0.1559774 0.016676828 1.1205999 4280101605
-0.15456598 0.016736442 1.123 4280101605
-0.15300465 0.016781153 1.126 4280101605
-0.15103038 0.016781153 1.126 4280101605
-0.14905612 0.016781153 1.1293999 4280101605
-0.14812684 0.016900379 1.1336001 4280101605
-0.14613858 0.016900379 1.1365998 4280101605
-0.14465876 0.016959993 1.138 4280101605
-0.14303957 0.017004704 1.1408501 4280101605
-0.14103901 0.017004704 1.141 4280101605
-0.13952588 0.017064316 1.1449999 4280101605
-0.1375183 0.017064316 1.1449999 4280101605
-0.13598415 0.01712393 1.149 4280101605
-0.13443595 0.017183542 1.1531999 4280101605
-0.13287371 0.017243154 1.1569999 4280101605
-0.13129748 0.017302768 1.1595999 4280101605
-0.12926187 0.017302768 1.161 4280101605
-0.12766458 0.017362382 1.1642002 4280101605
-0.12605327 0.017421996 1.1678001 4280101605
-0.12400362 0.017421996 1.169 4280101605
-0.12237126 0.017481608 1.1725999 4280101605
-0.12031461 0.017481608 1.1731999 4280101605
-0.11906448 0.017600836 1.179 4280101605
-0.11739004 0.017660448 1.1830001 4280101605
-0.11570159 0.017720062 1.1874001 4280101605
-0.11361687 0.017720062 1.1891998 4280101605
-0.11190736 0.017779676 1.193 4280101605
-0.11018385 0.01783929 1.1956002 4280101605
-0.1080851 0.01783929 1.1969999 4280101605
-0.10642909 0.017913805 1.20175 4280101605
-0.10432158 0.017913805 1.2022001 4280101605
-0.10255421 0.017973417 1.2078001 4280101605
-0.10077284 0.018033031 1.2100002 4280101605
-0.021815848 0.017660448 1.2090001 4284583358
-0.019738149 0.017660448 1.1844001 4284583358
-0.017541224 0.017541224 1.1794001 4284583358
-0.01547755 0.017541224 1.1766001 4284583358
-0.013368289 0.017481608 1.1722 4284583358
-0.011273056 0.017421996 1.1700002 4284583358
-0.0092234099 0.017421996 1.1692002 4284583358
-0.0071737636 0.017421996 1.1688001 4284583358
-0.0051065828 0.017362382 1.1649998 4284583358
-0.0030639498 0.017362382 1.1649998 4284583358
-0.0010213166 0.017362382 1.1647999 4284583358
0.0010213166 0.017362382 1.1629999 4284583358
0.0030639498 0.017362382 1.1618 4284583358
0.0051065828 0.017362382 1.1619999 4284583358
0.0071492163 0.017362382 1.1616 4284583358
0.0091602895 0.017302768 1.161 4284583358
0.011195909 0.017302768 1.161 4284583358
0.01323153 0.017302768 1.1611998 4284583358
0.01526715 0.017302768 1.1614 4284583358
0.017302768 0.017302768 1.1618 4284583358
0.019405015 0.017362382 1.1646 4284583358
0.021447649 0.017362382 1.1646 4284583358
0.023409629 0.017302768 1.1631999 4284583358
0.025445249 0.017302768 1.1630001 4284583358
0.027575547 0.017362382 1.1640003 4284583358
0.029618181 0.017362382 1.1649998 4284583358
0.031660814 0.017362382 1.1649998 4284583358
0.033819169 0.017421996 1.1688001 4284583358
0.035746079 0.017362382 1.1657997 4284583358
0.037788715 0.017362382 1.1657997 4284583358
0.16562425 0.017064316 1.1481999 4285916889
0.1676318 0.017064316 1.1478 4285916889
0.17023201 0.01712393 1.1486 4285916889
0.17224659 0.01712393 1.1496 4285916889
0.17426117 0.01712393 1.15 4285916889
0.17627576 0.01712393 1.1512001 4285916889
0.178911 0.017183542 1.1528 4285916889
0.1809326 0.017183542 1.153 4285916889
0.18295418 0.017183542 1.153 4285916889
0.18497577 0.017183542 1.153 4285916889
0.18699737 0.017183542 1.1539999 4285916889
0.18901896 0.017183542 1.153 4285916889
0.19104056 0.017183542 1.153 4285916889
0.19306214 0.017183542 1.153 4285916889
0.19508375 0.017183542 1.1537999 4285916889
0.19710535 0.017183542 1.1534001 4285916889
0.19912694 0.017183542 1.1534001 4285916889
0.20114854 0.017183542 1.153 4285916889
0.20317012 0.017183542 1.153 4285916889
0.20519172 0.017183542 1.154 4285916889
0.20721331 0.017183542 1.1537999 4285916889
0.20923491 0.017183542 1.1538 4285916889
0.2112565 0.017183542 1.1543999 4285916889
0.21327808 0.017183542 1.1528 4285916889
0.21529968 0.017183542 1.1526 4285916889
0.21656734 0.01712393 1.149 4285916889
0.21782097 0.017064316 1.1453999 4285916889
0.21982853 0.017064316 1.1452 4285916889
0.2218361 0.017064316 1.1453999 4285916889
-0.252487 0.018522212 1.112 4280101605
-0.2496361 0.018455585 1.1071 4280101605
-0.24612851 0.018338988 1.1027999 4280101605
-0.24331094 0.018272363 1.1001999 4280101605
-0.24138755 0.018272363 1.097 4280101605
-0.23946413 0.018272363 1.097 4280101605
-0.23754072 0.018272363 1.097 4280101605
-0.23561732 0.018272363 1.097 4280101605
-0.23305482 0.018222392 1.094 4280101605
-0.23113665 0.018222392 1.094 4280101605
-0.22921851 0.018222392 1.094 4280101605
-0.22730036 0.018222392 1.094 4280101605
-0.22538222 0.018222392 1.0934 4280101605
-0.22346407 0.018222392 1.0934 4280101605
-0.22154592 0.018222392 1.0937999 4280101605
-0.21962778 0.018222392 1.0937999 4280101605
-0.21770963 0.018222392 1.0937999 4280101605
-0.21579148 0.018222392 1.094 4280101605
-0.21387334 0.018222392 1.094 4280101605
-0.2119552 0.018222392 1.094 4280101605
-0.21003705 0.018222392 1.094 4280101605
-0.2081189 0.018222392 1.094 4280101605
-0.20620075 0.018222392 1.094 4280101605
-0.20484279 0.018272363 1.0953499 4280101605
-0.20236446 0.018222392 1.09345 4280101605
-0.20044631 0.018222392 1.0929998 4280101605
-0.19780229 0.018155767 1.09 4280101605
-0.19589117 0.018155767 1.09 4280101605
-0.19398002 0.018155767 1.09 4280101605
-0.19154026 0.018105796 1.0894001 4280101605
-0.1896344 0.018105796 1.0894001 4280101605
-0.18772852 0.018105796 1.0895501 4280101605
-0.18633549 0.018155767 1.09 4280101605
-0.18442437 0.018155767 1.0926001 4280101605
-0.183183 0.018222392 1.0933999 4280101605
-0.18126485 0.018222392 1.0937999 4280101605
-0.17983852 0.018272363 1.0967 4280101605
-0.17791511 0.018272363 1.0972 4280101605
-0.17663342 0.018338988 1.101 4280101605
-0.17470299 0.018338988 1.101 4280101605
-0.17277257 0.018338988 1.101 4280101605
-0.17084216 0.018338988 1.101 4280101605
-0.16952541 0.018405616 1.1032 4280101605
-0.16758798 0.018405616 1.105 4280101605
-0.16565055 0.018405616 1.105 4280101605
-0.1641576 0.018455585 1.108 4280101605
-0.16221489 0.018455585 1.108 4280101605
-0.16085079 0.018522212 1.112 4280101605
-0.15932977 0.018572181 1.115 4280101605
-0.15737481 0.018572181 1.115 4280101605
-0.15695314 0.018755406 1.126 4280101605
-0.15497889 0.018755406 1.126 4280101605
-0.15354815 0.018822031 1.1274 4280101605
-0.15156689 0.018822031 1.13 4280101605
-0.15064465 0.018955285 1.1364 4280101605
-0.14904122 0.019005256 1.141 4280101605
-0.14704067 0.019005256 1.141 4280101605
-0.14504011 0.019005256 1.1424 4280101605
-0.14354101 0.019071883 1.1449999 4280101605
-0.14153343 0.019071883 1.1449999 4280101605
-0.14001332 0.019138509 1.149 4280101605
-0.13799873 0.019138509 1.149 4280101605
-0.13645755 0.019205136 1.153 4280101605
-0.13490233 0.019271763 1.1569999 4280101605
-0.1333331 0.01933839 1.161 4280101605
-0.13129748 0.01933839 1.161 4280101605
-0.12970722 0.019405015 1.1642001 4280101605
-0.12766458 0.019405015 1.1662 4280101605
-0.12605327 0.019471643 1.169 4280101605
-0.12442792 0.019538268 1.1723999 4280101605
-0.12237126 0.019538268 1.173 4280101605
-0.12072489 0.019604897 1.1764001 4280101605
-0.11946774 0.019738149 1.1816 4280101605
-0.1177863 0.019804776 1.1846 4280101605
-0.11570159 0.019804776 1.189 4280101605
-0.1139991 0.019871403 1.1920002 4280101605
-0.11190736 0.019871403 1.193 4280101605
-0.11018385 0.019938029 1.1969999 4280101605
-0.10853659 0.020021314 1.202 4280101605
-0.10642909 0.020021314 1.2048 4280101605
-0.10466874 0.020087939 1.2061999 4280101605
-0.10289437 0.020154567 1.2098 4280101605
-0.019738149 0.019738149 1.1868999 4284583358
-0.017541224 0.019604897 1.1797999 4284583358
-0.01547755 0.019604897 1.1768 4284583358
-0.013368289 0.019538268 1.1733998 4284583358
-0.01131163 0.019538268 1.1717999 4284583358
-0.0092234099 0.019471643 1.1696 4284583358
-0.0071737636 0.019471643 1.1692002 4284583358
-0.0051241168 0.019471643 1.1674 4284583358
-0.0030639498 0.019405015 1.1649998 4284583358
-0.0010213166 0.019405015 1.1649998 4284583358
0.0010213166 0.019405015 1.1649998 4284583358
0.0030639498 0.019405015 1.1649998 4284583358
0.0051065828 0.019405015 1.1649998 4284583358
0.0071492163 0.019405015 1.1649998 4284583358
0.0091918493 0.019405015 1.1649998 4284583358
0.011234483 0.019405015 1.1639998 4284583358
0.013277115 0.019405015 1.1639998 4284583358
0.015319748 0.019405015 1.1644001 4284583358
0.017362382 0.019405015 1.1644001 4284583358
0.019405015 0.019405015 1.1649998 4284583358
0.021447649 0.019405015 1.1648 4284583358
0.02349028 0.019405015 1.1648 4284583358
0.025532916 0.019405015 1.1646 4284583358
0.027575547 0.019405015 1.1646 4284583358
0.029618181 0.019405015 1.1649998 4284583358
0.031660814 0.019405015 1.1656001 4284583358
0.033819169 0.019471643 1.169 4284583358
0.035746079 0.019405015 1.1659997 4284583358
0.037788715 0.019405015 1.1659997 4284583358
0.15060869 0.019205136 1.153 4285916889
0.15263028 0.019205136 1.153 4285916889
0.15465188 0.019205136 1.153 4285916889
0.15667348 0.019205136 1.1524 4285916889
0.15869507 0.019205136 1.1522 4285916889
0.16015911 0.019138509 1.149 4285916889
0.16217369 0.019138509 1.149 4285916889
0.16361667 0.019071883 1.1478002 4285916889
0.16562425 0.019071883 1.1468003 4285916889
0.1676318 0.019071883 1.1471999 4285916889
0.16963936 0.019071883 1.1475999 4285916889
0.17224659 0.019138509 1.1494 4285916889
0.17426117 0.019138509 1.1494 4285916889
0.17627576 0.019138509 1.1494 4285916889
0.178911 0.019205136 1.1528 4285916889
0.1809326 0.019205136 1.1528 4285916889
0.18295418 0.019205136 1.153 4285916889
0.18497577 0.019205136 1.153 4285916889
0.18699737 0.019205136 1.1534001 4285916889
0.18901896 0.019205136 1.153 4285916889
0.19104056 0.019205136 1.153 4285916889
0.19306214 0.019205136 1.1520001 4285916889
0.19508375 0.019205136 1.1520001 4285916889
0.19710535 0.019205136 1.1526 4285916889
0.19912694 0.019205136 1.1528 4285916889
0.20045072 0.019138509 1.1496001 4285916889
0.20246528 0.019138509 1.1496001 4285916889
0.20519172 0.019205136 1.1516 4285916889
0.20649445 0.019138509 1.1498001 4285916889
0.20850904 0.019138509 1.1498001 4285916889
0.2112565 0.019205136 1.1528 4285916889
0.21327808 0.019205136 1.1528 4285916889
0.21529968 0.019205136 1.1526 4285916889
0.21656734 0.019138509 1.1492001 4285916889
0.21782097 0.019071883 1.1474001 4285916889
0.21982853 0.019071883 1.1472002 4285916889
0.2226111 0.019138509 1.1468 4285916889
0.22462568 0.019138509 1.1466 4285916889
-0.2496361 0.02039828 1.1071093 4280101605
-0.24612851 0.020269407 1.1029999 4280101605
-0.24331094 0.020195769 1.1001999 4280101605
-0.24138755 0.020195769 1.097 4280101605
-0.23946413 0.020195769 1.097 4280101605
-0.23754072 0.020195769 1.097 4280101605
-0.23561732 0.020195769 1.097 4280101605
-0.23305482 0.020140538 1.094 4280101605
-0.23113665 0.020140538 1.094 4280101605
-0.22921851 0.020140538 1.094 4280101605
-0.22730036 0.020140538 1.0936 4280101605
-0.22455814 0.0200669 1.09 4280101605
-0.22264703 0.0200669 1.09 4280101605
-0.22073589 0.0200669 1.0908 4280101605
-0.21882476 0.0200669 1.09 4280101605
-0.21691363 0.0200669 1.09 4280101605
-0.21500249 0.0200669 1.09 4280101605
-0.21309136 0.0200669 1.09 4280101605
-0.21118024 0.0200669 1.09 4280101605
-0.20926909 0.0200669 1.09 4280101605
-0.20735797 0.0200669 1.09 4280101605
-0.20544682 0.0200669 1.09 4280101605
-0.20428261 0.020140538 1.0913 4280101605
-0.20162456 0.0200669 1.0883499 4280101605
-0.19971344 0.0200669 1.0883499 4280101605
-0.19780229 0.0200669 1.09 4280101605
-0.19589117 0.0200669 1.0897 4280101605
-0.19344613 0.020011669 1.087 4280101605
-0.19154026 0.020011669 1.087 4280101605
-0.1896344 0.020011669 1.087 4280101605
-0.18772852 0.020011669 1.087 4280101605
-0.18633549 0.0200669 1.0897 4280101605
-0.18442437 0.0200669 1.09 4280101605
-0.18251322 0.0200669 1.0902001 4280101605
-0.18126485 0.020140538 1.0937999 4280101605
-0.17983852 0.020195769 1.0961001 4280101605
-0.17791511 0.020195769 1.097 4280101605
-0.17663342 0.020269407 1.1004 4280101605
-0.17470299 0.020269407 1.101 4280101605
-0.17277257 0.020269407 1.101 4280101605
-0.17084216 0.020269407 1.1017998 4280101605
-0.16952541 0.020343048 1.1054499 4280101605
-0.16804297 0.02039828 1.108 4280101605
-0.16610028 0.02039828 1.108 4280101605
-0.1641576 0.02039828 1.1109998 4280101605
-0.16280049 0.020471919 1.1129 4280101605
-0.16128474 0.02052715 1.1152002 4280101605
-0.16047296 0.02067443 1.1204 4280101605
-0.15850396 0.02067443 1.1222 4280101605
-0.15695314 0.020729661 1.1262 4280101605
-0.15552942 0.020803299 1.1278 4280101605
-0.15354815 0.020803299 1.13 4280101605
-0.15156689 0.020803299 1.1303998 4280101605
-0.15064465 0.02095058 1.1366 4280101605
-0.14904122 0.021005809 1.1420001 4280101605
-0.14755614 0.021079449 1.1424 4280101605
-0.14554857 0.021079449 1.1449999 4280101605
-0.14354101 0.021079449 1.1449999 4280101605
-0.14153343 0.021079449 1.1453999 4280101605
-0.14001332 0.021153091 1.149 4280101605
-0.13799873 0.021153091 1.149 4280101605
-0.13645755 0.021226728 1.153 4280101605
-0.13536872 0.02137401 1.1592 4280101605
-0.1333331 0.02137401 1.1619999 4280101605
-0.13129748 0.02137401 1.1619999 4280101605
-0.12970722 0.021447649 1.1649998 4280101605
-0.12810291 0.021521289 1.169 4280101605
-0.12648457 0.021594929 1.1722 4280101605
-0.12442792 0.021594929 1.173 4280101605
-0.12237126 0.021594929 1.1746 4280101605
-0.12072489 0.02166857 1.177 4280101605
-0.11946774 0.021815848 1.1832001 4280101605
-0.1177863 0.021889489 1.1863999 4280101605
-0.11609081 0.021963129 1.1908 4280101605
-0.1139991 0.021963129 1.193 4280101605
-0.1122826 0.02203677 1.1963999 4280101605
-0.11064409 0.02212882 1.1995001 4280101605
-0.10889777 0.02220246 1.206 4280101605
-0.10678326 0.02220246 1.2061999 4280101605
-0.1050159 0.0222761 1.2100002 4280101605
-0.020087939 0.02220246 1.2044501 4284583358
-0.017600836 0.02174221 1.1813999 4284583358
-0.01547755 0.02166857 1.1799999 4284583358
-0.013368289 0.021594929 1.1752 4284583358
-0.01131163 0.021594929 1.1744 4284583358
-0.0092549697 0.021594929 1.1731999 4284583358
-0.0071983091 0.021594929 1.1722 4284583358
-0.0051241168 0.021521289 1.169 4284583358
-0.0030744697 0.021521289 1.169 4284583358
-0.0010248233 0.021521289 1.1686002 4284583358
0.0010248233 0.021521289 1.1669998 4284583358
0.0030639498 0.021447649 1.1651999 4284583358
0.0051065828 0.021447649 1.1649998 4284583358
0.0071492163 0.021447649 1.1649998 4284583358
0.0091918493 0.021447649 1.1649998 4284583358
0.011234483 0.021447649 1.1649998 4284583358
0.013277115 0.021447649 1.1649998 4284583358
0.015319748 0.021447649 1.1649998 4284583358
0.017362382 0.021447649 1.1649998 4284583358
0.019405015 0.021447649 1.1651999 4284583358
0.021521289 0.021521289 1.1670001 4284583358
0.02349028 0.021447649 1.1670001 4284583358
0.025532916 0.021447649 1.1664001 4284583358
0.027575547 0.021447649 1.1657999 4284583358
0.029618181 0.021447649 1.1659998 4284583358
0.031660814 0.021447649 1.1672002 4284583358
0.033819169 0.021521289 1.1696 4284583358
0.035868816 0.021521289 1.1714001 4284583358
0.0383077 0.02174221 1.1756785 4284583358
0.14454392 0.021226728 1.152545 4285916889
0.14656551 0.021226728 1.1526 4285916889
0.14858711 0.021226728 1.153 4285916889
0.15060869 0.021226728 1.153 4285916889
0.15263028 0.021226728 1.153 4285916889
0.15465188 0.021226728 1.153 4285916889
0.15667348 0.021226728 1.1524 4285916889
0.15869507 0.021226728 1.1522 4285916889
0.16015911 0.021153091 1.149 4285916889
0.16217369 0.021153091 1.149 4285916889
0.16361667 0.021079449 1.1478002 4285916889
0.16562425 0.021079449 1.1466 4285916889
0.1676318 0.021079449 1.1471999 4285916889
0.16963936 0.021079449 1.1471999 4285916889
0.17224659 0.021153091 1.149 4285916889
0.17426117 0.021153091 1.1494 4285916889
0.17627576 0.021153091 1.1496 4285916889
0.178911 0.021226728 1.1528 4285916889
0.1809326 0.021226728 1.1528 4285916889
0.18231949 0.021153091 1.1511999 4285916889
0.18433407 0.021153091 1.1511999 4285916889
0.18699737 0.021226728 1.1522 4285916889
0.18836322 0.021153091 1.1494 4285916889
0.19037782 0.021153091 1.149 4285916889
0.19239239 0.021153091 1.149 4285916889
0.19440697 0.021153091 1.149 4285916889
0.19642155 0.021153091 1.1504 4285916889
0.19843613 0.021153091 1.1508 4285916889
0.20045072 0.021153091 1.1492001 4285916889
0.20246528 0.021153091 1.1492001 4285916889
0.20447987 0.021153091 1.1502001 4285916889
0.20649445 0.021153091 1.149 4285916889
0.20778315 0.021079449 1.1478001 4285916889
0.20979071 0.021079449 1.1476002 4285916889
0.21179828 0.021079449 1.1476002 4285916889
0.21380584 0.021079449 1.1478002 4285916889
0.21656734 0.021153091 1.149 4285916889
0.21782097 0.021079449 1.1478002 4285916889
0.21982853 0.021079449 1.1478002 4285916889
0.2226111 0.021153091 1.1468 4285916889
0.22462568 0.021153091 1.1456 4285916889
0.22664025 0.021153091 1.1458001 4285916889
-0.2496361 0.022340974 1.1084689 4280101605
-0.24769339 0.022340974 1.1074002 4280101605
-0.24508531 0.022280483 1.1047499 4280101605
-0.24138755 0.022119176 1.0993999 4280101605
-0.23946413 0.022119176 1.0979999 4280101605
-0.23754072 0.022119176 1.097 4280101605
-0.23561732 0.022119176 1.097 4280101605
-0.23305482 0.022058684 1.094 4280101605
-0.23113665 0.022058684 1.094 4280101605
-0.22921851 0.022058684 1.094 4280101605
-0.22646931 0.021978034 1.0906 4280101605
-0.22455814 0.021978034 1.09 4280101605
-0.22203423 0.021917542 1.0885 4280101605
-0.22012836 0.021917542 1.087 4280101605
-0.21822248 0.021917542 1.087 4280101605
-0.21631663 0.021917542 1.087 4280101605
-0.21441074 0.021917542 1.08715 4280101605
-0.21250486 0.021917542 1.087 4280101605
-0.21059901 0.021917542 1.087 4280101605
-0.20869313 0.021917542 1.087 4280101605
-0.20678724 0.021917542 1.087 4280101605
-0.20488137 0.021917542 1.087 4280101605
-0.20353571 0.021978034 1.0883499 4280101605
-0.20162456 0.021978034 1.0878999 4280101605
-0.19916375 0.021917542 1.0874499 4280101605
-0.19725788 0.021917542 1.0881999 4280101605
-0.19535202 0.021917542 1.087 4280101605
-0.19344613 0.021917542 1.087 4280101605
-0.19154026 0.021917542 1.087 4280101605
-0.1896344 0.021917542 1.087 4280101605
-0.18772852 0.021917542 1.087 4280101605
-0.18633549 0.021978034 1.0885 4280101605
-0.18442437 0.021978034 1.09 4280101605
-0.18251322 0.021978034 1.09 4280101605
-0.18126485 0.022058684 1.0937999 4280101605
-0.17983852 0.022119176 1.0962499 4280101605
-0.17791511 0.022119176 1.097 4280101605
-0.17663342 0.022199828 1.1004 4280101605
-0.17470299 0.022199828 1.101 4280101605
-0.17277257 0.022199828 1.1014 4280101605
-0.17146285 0.022280483 1.1048 4280101605
-0.16998567 0.022340974 1.108 4280101605
-0.16864961 0.022421626 1.1108 4280101605
-0.1666999 0.022421626 1.112 4280101605
-0.1647502 0.022421626 1.1124499 4280101605
-0.16323972 0.022482116 1.1156001 4280101605
-0.16186334 0.022562768 1.1193999 4280101605
-0.16047296 0.022643423 1.12315 4280101605
-0.15850396 0.022643423 1.1241997 4280101605
-0.1575107 0.022784565 1.1292 4280101605
-0.15552942 0.022784565 1.13 4280101605
-0.15409169 0.022865217 1.1311998 4280101605
-0.15210341 0.022865217 1.1339999 4280101605
-0.15064465 0.022945872 1.1371999 4280101605
-0.14904122 0.023006363 1.1418002 4280101605
-0.14755614 0.023087015 1.1447999 4280101605
-0.14554857 0.023087015 1.1449999 4280101605
-0.14354101 0.023087015 1.1449999 4280101605
-0.14202788 0.023167672 1.1487999 4280101605
-0.14001332 0.023167672 1.149 4280101605
-0.13847914 0.023248322 1.1512001 4280101605
-0.13693094 0.023328975 1.1569999 4280101605
-0.13536872 0.023409629 1.161 4280101605
-0.13379247 0.02349028 1.1645999 4280101605
-0.13174984 0.02349028 1.1645999 4280101605
-0.12970722 0.02349028 1.1668 4280101605
-0.12810291 0.023570936 1.1698 4280101605
-0.12648457 0.023651589 1.1727999 4280101605
-0.12442792 0.023651589 1.1742001 4280101605
-0.12278856 0.023732243 1.1768 4280101605
-0.12072489 0.023732243 1.1784 4280101605
-0.11987101 0.023974203 1.1858001 4280101605
-0.11818254 0.024054855 1.1895999 4280101605
-0.11609081 0.024054855 1.1928002 4280101605
-0.1139991 0.024054855 1.1937999 4280101605
-0.1122826 0.02413551 1.1972501 4280101605
-0.11101229 0.024316978 1.2034 4280101605
-0.10925896 0.024397634 1.2089999 4280101605
-0.017660448 0.023893548 1.1984999 4284583358
-0.015530149 0.023812896 1.1839998 4284583358
-0.013413876 0.023732243 1.1794001 4284583358
-0.011350203 0.023732243 1.1782001 4284583358
-0.0092865303 0.023732243 1.1768 4284583358
-0.0072228569 0.023732243 1.1739999 4284583358
-0.0051241168 0.023570936 1.1702 4284583358
-0.0030744697 0.023570936 1.169 4284583358
-0.0010248233 0.023570936 1.169 4284583358
0.0010248233 0.023570936 1.169 4284583358
0.0030744697 0.023570936 1.1676002 4284583358
0.0051241168 0.023570936 1.1666 4284583358
0.0071737636 0.023570936 1.1664001 4284583358
0.0092234099 0.023570936 1.1658001 4284583358
0.011273056 0.023570936 1.1658001 4284583358
0.013277115 0.02349028 1.1651999 4284583358
0.015319748 0.02349028 1.1651999 4284583358
0.017362382 0.02349028 1.1651999 4284583358
0.019405015 0.02349028 1.1654001 4284583358
0.021521289 0.023570936 1.1682 4284583358
0.023570936 0.023570936 1.1686002 4284583358
0.025620583 0.023570936 1.168 4284583358
0.027670231 0.023570936 1.1676 4284583358
0.029719876 0.023570936 1.1681999 4284583358
0.031769525 0.023570936 1.1708 4284583358
0.03405061 0.023732243 1.176 4284583358
0.036237013 0.023812896 1.1797999 4284583358
0.0383077 0.023812896 1.1814001 4284583358
0.14202788 0.023167672 1.1492001 4285916889
0.14404248 0.023167672 1.149 4285916889
0.14605705 0.023167672 1.149 4285916889
0.14807162 0.023167672 1.149 4285916889
0.15060869 0.023248322 1.1508 4285916889
0.15210079 0.023167672 1.1496 4285916889
0.15411538 0.023167672 1.1496 4285916889
0.15612994 0.023167672 1.1492001 4285916889
0.15814453 0.023167672 1.149 4285916889
0.16015911 0.023167672 1.149 4285916889
0.16217369 0.023167672 1.1484001 4285916889
0.16361667 0.023087015 1.1449999 4285916889
0.16562425 0.023087015 1.1449999 4285916889
0.1676318 0.023087015 1.1471999 4285916889
0.16963936 0.023087015 1.1461999 4285916889
0.17224659 0.023167672 1.147 4285916889
0.17426117 0.023167672 1.1480001 4285916889
0.17627576 0.023167672 1.1492001 4285916889
0.17829032 0.023167672 1.1492001 4285916889
0.1803049 0.023167672 1.1502001 4285916889
0.18231949 0.023167672 1.1498001 4285916889
0.18433407 0.023167672 1.1498001 4285916889
0.18634865 0.023167672 1.149 4285916889
0.18836322 0.023167672 1.1488001 4285916889
0.19037782 0.023167672 1.1486 4285916889
0.19239239 0.023167672 1.1482002 4285916889
0.19440697 0.023167672 1.1484001 4285916889
0.19642155 0.023167672 1.1488001 4285916889
0.19843613 0.023167672 1.1488001 4285916889
0.20045072 0.023167672 1.148 4285916889
0.20246528 0.023167672 1.148 4285916889
0.20447987 0.023167672 1.149 4285916889
0.20649445 0.023167672 1.149 4285916889
0.20778315 0.023087015 1.1458001 4285916889
0.20979071 0.023087015 1.1458001 4285916889
0.21179828 0.023087015 1.1455998 4285916889
0.21380584 0.023087015 1.1455998 4285916889
0.21581341 0.023087015 1.1474001 4285916889
0.21782097 0.023087015 1.1468 4285916889
0.21982853 0.023087015 1.1466 4285916889
0.2218361 0.023087015 1.1449999 4285916889
0.22384366 0.023087015 1.1449999 4285916889
0.22585124 0.023087015 1.1449999 4285916889
0.22785881 0.023087015 1.1449999 4285916889
-0.25053731 0.024371332 1.1103437 4280101605
-0.24769339 0.024283666 1.10825 4280101605
-0.2457507 0.024283666 1.1060498 4280101605
-0.24226768 0.024130249 1.1015999 4280101605
-0.24033727 0.024130249 1.1006 4280101605
-0.23754072 0.024042582 1.0978 4280101605
-0.23561732 0.024042582 1.097 4280101605
-0.23305482 0.023976833 1.094 4280101605
-0.23113665 0.023976833 1.094 4280101605
-0.22921851 0.023976833 1.0937999 4280101605
-0.22646931 0.023889165 1.09 4280101605
-0.22394012 0.023823416 1.0873001 4280101605
-0.22203423 0.023823416 1.087 4280101605
-0.22012836 0.023823416 1.087 4280101605
-0.21762021 0.023757666 1.0852001 4280101605
-0.2157196 0.023757666 1.0852001 4280101605
-0.21441074 0.023823416 1.087 4280101605
-0.21191837 0.023757666 1.0841498 4280101605
-0.21001776 0.023757666 1.0841498 4280101605
-0.20811714 0.023757666 1.0842998 4280101605
-0.20621653 0.023757666 1.0842998 4280101605
-0.20488137 0.023823416 1.0846001 4280101605
-0.20297551 0.023823416 1.0853499 4280101605
-0.20106964 0.023823416 1.0853499 4280101605
-0.19916375 0.023823416 1.087 4280101605
-0.19725788 0.023823416 1.087 4280101605
-0.19535202 0.023823416 1.087 4280101605
-0.19344613 0.023823416 1.087 4280101605
-0.19154026 0.023823416 1.087 4280101605
-0.1896344 0.023823416 1.087 4280101605
-0.18772852 0.023823416 1.087 4280101605
-0.18633549 0.023889165 1.0885 4280101605
-0.18442437 0.023889165 1.09 4280101605
-0.18251322 0.023889165 1.09 4280101605
-0.18126485 0.023976833 1.094 4280101605
-0.17983852 0.024042582 1.097 4280101605
-0.17791511 0.024042582 1.097 4280101605
-0.17663342 0.024130249 1.1007999 4280101605
-0.17470299 0.024130249 1.101 4280101605
-0.17340027 0.024217915 1.1048 4280101605
-0.17192836 0.024283666 1.1077 4280101605
-0.17059931 0.024371332 1.1118 4280101605
-0.16864961 0.024371332 1.112 4280101605
-0.1666999 0.024371332 1.1142499 4280101605
-0.16519468 0.024437083 1.115 4280101605
-0.1638253 0.024524748 1.119 4280101605
-0.16244194 0.024612416 1.123 4280101605
-0.16090165 0.024678167 1.126 4280101605
-0.1589274 0.024678167 1.126 4280101605
-0.1575107 0.024765832 1.13 4280101605
-0.15552942 0.024765832 1.13 4280101605
-0.15409169 0.024853498 1.1337999 4280101605
-0.15210341 0.024853498 1.1344 4280101605
-0.15064465 0.024941167 1.1376001 4280101605
-0.14904122 0.025006916 1.1422001 4280101605
-0.14755614 0.025094582 1.1449999 4280101605
-0.14554857 0.025094582 1.1453999 4280101605
-0.14354101 0.025094582 1.1453999 4280101605
-0.14202788 0.025182249 1.149 4280101605
-0.14050072 0.025269916 1.153 4280101605
-0.13895954 0.025357582 1.1551998 4280101605
-0.13740434 0.025445249 1.1601999 4280101605
-0.13583511 0.025532916 1.1627998 4280101605
-0.13379247 0.025532916 1.1664001 4280101605
-0.13174984 0.025532916 1.1664001 4280101605
-0.13015255 0.025620583 1.169 4280101605
-0.12854125 0.025708247 1.173 4280101605
-0.12648457 0.025708247 1.1733998 4280101605
-0.12485224 0.025795916 1.1768 4280101605
-0.12278856 0.025795916 1.1780001 4280101605
-0.12113517 0.025883581 1.1809999 4280101605
-0.12027427 0.026146581 1.1892 4280101605
-0.11818254 0.026146581 1.1912003 4280101605
-0.11609081 0.026146581 1.1940001 4280101605
-0.11438133 0.026234251 1.1972501 4280101605
-0.1127516 0.026343834 1.2024001 4280101605
-0.11101229 0.026431499 1.2068 4280101605
-0.015635351 0.026058916 1.1897999 4284583358
-0.013505048 0.025971247 1.183 4284583358
-0.011388776 0.025883581 1.181 4284583358
-0.0093180891 0.025883581 1.1788 4284583358
-0.0072228569 0.025795916 1.1768 4284583358
-0.0051591834 0.025795916 1.1760002 4284583358
-0.00308499 0.025708247 1.1722 4284583358
-0.0010283299 0.025708247 1.1692002 4284583358
0.0010248233 0.025620583 1.169 4284583358
0.0030744697 0.025620583 1.169 4284583358
0.0051241168 0.025620583 1.1688001 4284583358
0.0071737636 0.025620583 1.1688001 4284583358
0.0092234099 0.025620583 1.1688001 4284583358
0.011273056 0.025620583 1.1688001 4284583358
0.013322704 0.025620583 1.1676003 4284583358
0.015372349 0.025620583 1.1676003 4284583358
0.017421996 0.025620583 1.1678002 4284583358
0.019471643 0.025620583 1.168 4284583358
0.021521289 0.025620583 1.169 4284583358
0.023570936 0.025620583 1.169 4284583358
0.025620583 0.025620583 1.1686002 4284583358
0.027670231 0.025620583 1.1686002 4284583358
0.029821567 0.025708247 1.1702 4284583358
0.031986933 0.025795916 1.1744 4284583358
0.034166329 0.025883581 1.1808002 4284583358
0.036359746 0.025971247 1.1841999 4284583358
0.038437445 0.025971247 1.1872001 4284583358
0.13303679 0.025006916 1.1412002 4285916889
0.13503735 0.025006916 1.1412002 4285916889
0.1375183 0.025094582 1.1446 4285916889
0.13952588 0.025094582 1.1449999 4285916889
0.14153343 0.025094582 1.1449999 4285916889
0.14404248 0.025182249 1.1478002 4285916889
0.14605705 0.025182249 1.1478002 4285916889
0.14807162 0.025182249 1.1488001 4285916889
0.15008621 0.025182249 1.149 4285916889
0.15210079 0.025182249 1.149 4285916889
0.15411538 0.025182249 1.149 4285916889
0.15612994 0.025182249 1.149 4285916889
0.15814453 0.025182249 1.149 4285916889
0.15960154 0.025094582 1.1456 4285916889
0.16160911 0.025094582 1.1449999 4285916889
0.16361667 0.025094582 1.1449999 4285916889
0.16504565 0.025006916 1.1438 4285916889
0.1670462 0.025006916 1.1432 4285916889
0.16904676 0.025006916 1.1432 4285916889
0.17164694 0.025094582 1.1449999 4285916889
0.1736545 0.025094582 1.1449999 4285916889
0.17566207 0.025094582 1.1462002 4285916889
0.17766963 0.025094582 1.147 4285916889
0.1796772 0.025094582 1.1471999 4285916889
0.18231949 0.025182249 1.1486 4285916889
0.18433407 0.025182249 1.1486 4285916889
0.18569991 0.025094582 1.1470002 4285916889
0.18770747 0.025094582 1.1449999 4285916889
0.18971504 0.025094582 1.1449999 4285916889
0.1917226 0.025094582 1.1449999 4285916889
0.19373018 0.025094582 1.1449999 4285916889
0.19573773 0.025094582 1.1449999 4285916889
0.19774531 0.025094582 1.1452 4285916889
0.19975287 0.025094582 1.1465999 4285916889
0.20176043 0.025094582 1.1467998 4285916889
0.20447987 0.025182249 1.1488001 4285916889
0.20649445 0.025182249 1.149 4285916889
0.20778315 0.025094582 1.1455998 4285916889
0.20979071 0.025094582 1.1455998 4285916889
0.21179828 0.025094582 1.1449999 4285916889
0.21380584 0.025094582 1.1449999 4285916889
0.21581341 0.025094582 1.1449999 4285916889
0.21782097 0.025094582 1.1449999 4285916889
0.21982853 0.025094582 1.1449999 4285916889
0.2218361 0.025094582 1.1449999 4285916889
0.22384366 0.025094582 1.1449999 4285916889
0.22585124 0.025094582 1.1446 4285916889
0.22785881 0.025094582 1.1446 4285916889
-0.24858759 0.026321039 1.1084261 4280101605
-0.2457507 0.026226358 1.1060498 4280101605
-0.243808 0.026226358 1.1041 4280101605
-0.24033727 0.026060669 1.1030002 4280101605
-0.23840685 0.026060669 1.1011999 4280101605
-0.23561732 0.025965989 1.0986 4280101605
-0.23369391 0.025965989 1.097 4280101605
-0.23113665 0.025894979 1.094 4280101605
-0.22921851 0.025894979 1.0937999 4280101605
-0.22646931 0.025800299 1.09 4280101605
-0.22394012 0.025729289 1.0873001 4280101605
-0.22203423 0.025729289 1.087 4280101605
